# .PCD v0.7 - Point Cloud Data file format
VERSION 0.7
FIELDS x y z rgb normal_x normal_y normal_z curvature
SIZE 4 4 4 4 4 4 4 4
TYPE F F F F F F F F
COUNT 1 1 1 1 1 1 1 1
WIDTH 1316
HEIGHT 1
VIEWPOINT 0 0 0 1 0 0 0
POINTS 1316
DATA ascii
76.589996 0.83999997 4.1599998 0 0 0 0 0
13.44 77.389999 -3.73 0 0 0 0 0
29.540001 86.82 -6.5700002 0 0 0 0 0
45.470001 14.76 -5.1300001 0 0 0 0 0
51.509998 19 0 0 0 0 0 0
25.17 9.6300001 -2.6500001 0 0 0 0 0
23.959999 67.190002 7.8299999 0 0 0 0 0
69.220001 14.18 -6.0700002 0 0 0 0 0
10.42 66.610001 -1.5599999 0 0 0 0 0
70.800003 70.870003 -6.8099999 0 0 0 0 0
-11.21 51.540001 -2.99 0 0 0 0 0
2.8499999 0.98000002 2.98 0 0 0 0 0
55.470001 16.58 6.6500001 0 0 0 0 0
21.440001 16.120001 6.4200001 0 0 0 0 0
-4.4400001 39.919998 1.1 0 0 0 0 0
-1.51 32.16 -3.51 0 0 0 0 0
58.720001 67.660004 7.0999999 0 0 0 0 0
-2.0799999 4.4699998 -4.5500002 0 0 0 0 0
66.980003 12.54 -3.6199999 0 0 0 0 0
19.209999 -2.5699999 -2.1300001 0 0 0 0 0
64.449997 30.68 1.63 0 0 0 0 0
3.1300001 27.040001 7.6500001 0 0 0 0 0
-4.5500002 28.049999 -8.3400002 0 0 0 0 0
60.400002 46.52 -1.74 0 0 0 0 0
57.43 11.55 -0.93000001 0 0 0 0 0
15.42 12.3 -6.1399999 0 0 0 0 0
5.3600001 57.43 7.0999999 0 0 0 0 0
75.18 4.25 6.8299999 0 0 0 0 0
1.79 82.370003 -8.2600002 0 0 0 0 0
71.099998 33.07 -4.1300001 0 0 0 0 0
4.3200002 7.0799999 -1.5700001 0 0 0 0 0
32.34 0.69 -0.02 0 0 0 0 0
74.709999 15.33 6.98 0 0 0 0 0
73.110001 79.139999 -7.3699999 0 0 0 0 0
57.799999 6.0300002 -8.3800001 0 0 0 0 0
3.6600001 23.190001 -8.3900003 0 0 0 0 0
60.240002 45.75 3.26 0 0 0 0 0
12.72 57.900002 -8.3800001 0 0 0 0 0
5.8299999 15.13 -5.27 0 0 0 0 0
16.15 24.110001 0.11 0 0 0 0 0
63.439999 -0.22 0 0 0 0 0 0
58.880001 31.780001 0.12 0 0 0 0 0
7.9200001 29.67 8.0900002 0 0 0 0 0
33.25 67.849998 6.2199998 0 0 0 0 0
-7.9699998 42.110001 0.079999998 0 0 0 0 0
9.1099997 17.34 -5.9299998 0 0 0 0 0
6.48 71.089996 -5.9400001 0 0 0 0 0
-3.9200001 7.96 -5.8499999 0 0 0 0 0
6.27 69.279999 2.6700001 0 0 0 0 0
19.110001 16.559999 -4.71 0 0 0 0 0
14.43 -1.59 3.9200001 0 0 0 0 0
-9.0600004 57.720001 -0.54000002 0 0 0 0 0
54.389999 17.16 -0.82999998 0 0 0 0 0
44.950001 9.1800003 -1.16 0 0 0 0 0
25.58 63.959999 6.9200001 0 0 0 0 0
69.559998 77.260002 -5.6599998 0 0 0 0 0
15.62 71.410004 7.8600001 0 0 0 0 0
45.790001 1.37 -6.1399999 0 0 0 0 0
72 47.740002 -8.4099998 0 0 0 0 0
71.779999 2.78 6.3600001 0 0 0 0 0
-0.62 8.1999998 -6.7199998 0 0 0 0 0
60.41 51.490002 -6.02 0 0 0 0 0
22.43 3.3399999 -8.3800001 0 0 0 0 0
1.5599999 35.900002 -5.5100002 0 0 0 0 0
15.45 75.18 -4.4299998 0 0 0 0 0
61.349998 31.950001 -6.9000001 0 0 0 0 0
59.330002 31.190001 7.77 0 0 0 0 0
16.99 24.450001 4.96 0 0 0 0 0
7.1100001 7.5999999 -5.3800001 0 0 0 0 0
13.53 54.799999 7.8499999 0 0 0 0 0
48.84 62.34 1.8099999 0 0 0 0 0
10.65 42.48 1.91 0 0 0 0 0
-8.6899996 66.019997 -2.8599999 0 0 0 0 0
5.8699999 29.290001 -7.23 0 0 0 0 0
19.299999 86.519997 -1.85 0 0 0 0 0
14.12 62.889999 -0.64999998 0 0 0 0 0
-10.18 22.4 0.0099999998 0 0 0 0 0
73.610001 46.759998 -8.3999996 0 0 0 0 0
58.889999 59.779999 4.9899998 0 0 0 0 0
55.459999 12.17 2.1099999 0 0 0 0 0
19.540001 76.019997 -4.29 0 0 0 0 0
3.1600001 37.060001 7.79 0 0 0 0 0
74.779999 41.279999 4.29 0 0 0 0 0
-4.75 36.68 -8.3699999 0 0 0 0 0
15.38 17.559999 7.4000001 0 0 0 0 0
62.740002 44.84 -3.71 0 0 0 0 0
-7.23 14.37 4.4499998 0 0 0 0 0
26.93 79.830002 -8.3199997 0 0 0 0 0
61.529999 63.290001 -7.6599998 0 0 0 0 0
-8.9899998 75.019997 -8.4399996 0 0 0 0 0
31.950001 68.279999 5.1700001 0 0 0 0 0
58.849998 31.93 -1.7 0 0 0 0 0
75.849998 84.449997 -0.51999998 0 0 0 0 0
-7.96 11.08 5.1300001 0 0 0 0 0
50.950001 69.790001 7.3200002 0 0 0 0 0
58.200001 70.559998 8 0 0 0 0 0
-1.6 18.26 4.4000001 0 0 0 0 0
-6.3099999 15.35 4.4499998 0 0 0 0 0
39 81.709999 -5.0300002 0 0 0 0 0
16.360001 14.62 0.02 0 0 0 0 0
14.1 73.099998 -8.2399998 0 0 0 0 0
35.259998 13.22 5.6599998 0 0 0 0 0
60.57 9.5600004 5.04 0 0 0 0 0
23.07 11.42 -3.6099999 0 0 0 0 0
-0.67000002 84.230003 -1.37 0 0 0 0 0
61.66 78.089996 -0.56 0 0 0 0 0
1.17 35.349998 -6.1799998 0 0 0 0 0
13.62 58.709999 -1.52 0 0 0 0 0
65.279999 -3.3099999 0.25999999 0 0 0 0 0
13 18.889999 7.8299999 0 0 0 0 0
9.4799995 3.1199999 -8.0900002 0 0 0 0 0
1.09 52.060001 -7.3000002 0 0 0 0 0
63.279999 7.4099998 -8.3699999 0 0 0 0 0
28.09 72.190002 -3.5999999 0 0 0 0 0
10.47 0.17 6.0500002 0 0 0 0 0
18.780001 -4.6100001 -3.6400001 0 0 0 0 0
11.92 24.309999 -8.29 0 0 0 0 0
4.5999999 55.959999 -4.0300002 0 0 0 0 0
-1.79 80.07 -7.23 0 0 0 0 0
-0.27000001 8.7399998 -5.6199999 0 0 0 0 0
15.44 22.860001 -5.4899998 0 0 0 0 0
-10.43 5.23 2.21 0 0 0 0 0
5.5500002 18.120001 5.5300002 0 0 0 0 0
51.220001 60.580002 -6.7199998 0 0 0 0 0
1.62 86.849998 -5.0700002 0 0 0 0 0
58.459999 73.07 -7.4899998 0 0 0 0 0
25.120001 78.580002 -1.38 0 0 0 0 0
39.470001 72.779999 7.7800002 0 0 0 0 0
1.66 34.849998 0.2 0 0 0 0 0
-4.52 31.950001 -7.98 0 0 0 0 0
54.27 -3.8499999 -3.74 0 0 0 0 0
9.8999996 24.33 -2.1900001 0 0 0 0 0
32.830002 74.650002 -3.47 0 0 0 0 0
1.62 68.400002 -8.3000002 0 0 0 0 0
53.630001 6.0799999 -8.3699999 0 0 0 0 0
30.450001 75.650002 -4.54 0 0 0 0 0
72.260002 44.349998 -1.91 0 0 0 0 0
70.309998 57.23 0.0099999998 0 0 0 0 0
57.779999 58.080002 -5.3400002 0 0 0 0 0
56.419998 13.58 -1.64 0 0 0 0 0
76.519997 4.4899998 -7.3000002 0 0 0 0 0
74.5 29.559999 5.5500002 0 0 0 0 0
24.42 63.41 2.3299999 0 0 0 0 0
-11.19 58.509998 -3.6800001 0 0 0 0 0
39.959999 9.6300001 -1.99 0 0 0 0 0
9.0699997 20.219999 -1.29 0 0 0 0 0
65.309998 5.8600001 -8.3699999 0 0 0 0 0
69.82 41.950001 -4.73 0 0 0 0 0
52.169998 21.57 -1.39 0 0 0 0 0
26.620001 11.9 0.029999999 0 0 0 0 0
70.82 75.919998 -3.3099999 0 0 0 0 0
21.99 -4.6100001 -1.53 0 0 0 0 0
50.91 15.17 7.3699999 0 0 0 0 0
66.800003 42.130001 0 0 0 0 0 0
60.860001 77.620003 -0.60000002 0 0 0 0 0
8.9399996 13.73 -4.3800001 0 0 0 0 0
68.57 26.6 6.5100002 0 0 0 0 0
57.27 9.0799999 -6.6100001 0 0 0 0 0
54.5 81.760002 -0.88 0 0 0 0 0
59.080002 12.48 -8.4099998 0 0 0 0 0
62.73 44.849998 -4.5300002 0 0 0 0 0
60.529999 37.669998 3.6500001 0 0 0 0 0
48.09 19.469999 -3.7 0 0 0 0 0
-3.24 1.49 5.1199999 0 0 0 0 0
0.41 18 5.75 0 0 0 0 0
-10.55 55.799999 -0.51999998 0 0 0 0 0
28.98 72.019997 7.3200002 0 0 0 0 0
16.780001 69.510002 7.1199999 0 0 0 0 0
43.389999 77.230003 -8.46 0 0 0 0 0
-3.9100001 12.21 -8.3900003 0 0 0 0 0
-3.95 -4.5700002 -4.29 0 0 0 0 0
-2.0799999 44.110001 -5.3000002 0 0 0 0 0
1.02 43.619999 -1.6799999 0 0 0 0 0
58.939999 7.4200001 -8.3800001 0 0 0 0 0
7.4699998 18.66 3.9000001 0 0 0 0 0
76.459999 28.219999 -8.3500004 0 0 0 0 0
11.64 66.57 -8.2299995 0 0 0 0 0
14.88 -1.59 2.53 0 0 0 0 0
70.809998 76.959999 -8.6300001 0 0 0 0 0
35.73 69.419998 -1.63 0 0 0 0 0
13.94 28.59 -8.2399998 0 0 0 0 0
72.050003 64.309998 0.0099999998 0 0 0 0 0
-1.8 83.669998 -5.1199999 0 0 0 0 0
53.419998 72.699997 -8.3800001 0 0 0 0 0
23.309999 62.880001 -1.48 0 0 0 0 0
54.990002 81.25 -8.3199997 0 0 0 0 0
57.490002 75.400002 -7.2600002 0 0 0 0 0
10.09 82.93 -7.8000002 0 0 0 0 0
69.150002 55.599998 3.03 0 0 0 0 0
-0.70999998 7.7399998 -2.78 0 0 0 0 0
11.11 13.33 8.1000004 0 0 0 0 0
52.099998 67.440002 -8.4099998 0 0 0 0 0
55.32 11.69 5.1599998 0 0 0 0 0
61.799999 -2.8900001 0 0 0 0 0 0
1.5700001 15.52 -2.6099999 0 0 0 0 0
-2.49 35.41 -3.99 0 0 0 0 0
-2.0899999 12.7 -2.3 0 0 0 0 0
23.530001 66.290001 5.1700001 0 0 0 0 0
54.830002 13 7.75 0 0 0 0 0
-1.15 11.96 -2.6099999 0 0 0 0 0
67.809998 66.599998 -4.1100001 0 0 0 0 0
-9.2600002 82.449997 -0.62 0 0 0 0 0
1.5700001 39.529999 -2.54 0 0 0 0 0
14.4 5.7199998 -3.3099999 0 0 0 0 0
64.82 79.370003 -7.25 0 0 0 0 0
60.459999 31.280001 1.73 0 0 0 0 0
68.089996 51.41 -0.93000001 0 0 0 0 0
-3.4100001 54.919998 -8.3699999 0 0 0 0 0
23.450001 -1.61 4.73 0 0 0 0 0
56.779999 54.32 -0.52999997 0 0 0 0 0
69.089996 65.760002 7.9000001 0 0 0 0 0
15.52 26.200001 -5.5500002 0 0 0 0 0
67.18 48.98 -1.73 0 0 0 0 0
19.59 86.839996 -3.6300001 0 0 0 0 0
36.68 73.110001 -2.8399999 0 0 0 0 0
72.620003 -1.49 2.1300001 0 0 0 0 0
-5.0900002 82.360001 -8.3900003 0 0 0 0 0
-2.99 44.16 -8.3699999 0 0 0 0 0
-3.4100001 50.650002 -8.3800001 0 0 0 0 0
66.389999 42.880001 0 0 0 0 0 0
31.780001 -3.05 1.14 0 0 0 0 0
48.200001 74.629997 -5.29 0 0 0 0 0
61.75 0.82999998 -6.25 0 0 0 0 0
5.8200002 9.3800001 -2.02 0 0 0 0 0
-7.48 12.67 4.6700001 0 0 0 0 0
3.3199999 77.150002 -8.3500004 0 0 0 0 0
12.27 10.03 -8.2399998 0 0 0 0 0
59.830002 34.959999 -7.0900002 0 0 0 0 0
59.09 32.459999 6.73 0 0 0 0 0
74.269997 21.790001 -7.4899998 0 0 0 0 0
66.110001 -3.6199999 -4.3600001 0 0 0 0 0
61.369999 24.99 -8.3999996 0 0 0 0 0
63.130001 39.209999 3.5999999 0 0 0 0 0
44.400002 10.8 6.1900001 0 0 0 0 0
3.1099999 23.93 -7.8899999 0 0 0 0 0
4.6199999 27.16 -8.3999996 0 0 0 0 0
54.900002 80.589996 -0.63 0 0 0 0 0
19.700001 17.68 -6.3099999 0 0 0 0 0
75.169998 30.790001 -8.3800001 0 0 0 0 0
73.860001 55.200001 -4.6999998 0 0 0 0 0
38.700001 73.110001 3.71 0 0 0 0 0
4.6399999 55.869999 -0.0099999998 0 0 0 0 0
66.610001 64.080002 7.4699998 0 0 0 0 0
42.52 14.93 4.9000001 0 0 0 0 0
42.150002 71.779999 -8.3999996 0 0 0 0 0
39.639999 6.79 -3.46 0 0 0 0 0
56.639999 69.18 -3.5599999 0 0 0 0 0
29.9 9.1000004 -1.4 0 0 0 0 0
3.2 19.18 -4.0999999 0 0 0 0 0
1.62 70.790001 -1.4 0 0 0 0 0
25.5 -1.61 5.8600001 0 0 0 0 0
42.91 73.080002 1.9400001 0 0 0 0 0
47.57 15.82 4.0500002 0 0 0 0 0
-0.52999997 41.439999 -3.1700001 0 0 0 0 0
42.810001 73.099998 6.8800001 0 0 0 0 0
13.09 11.85 5.27 0 0 0 0 0
0.51999998 68.419998 -2.49 0 0 0 0 0
8.2399998 60.240002 -1.95 0 0 0 0 0
-10.68 22.969999 6.1799998 0 0 0 0 0
-7.6300001 13.31 -0.60000002 0 0 0 0 0
17.790001 58.59 4.46 0 0 0 0 0
70.07 -2.49 2.5599999 0 0 0 0 0
47.380001 78.790001 -8.3400002 0 0 0 0 0
53.349998 17.01 -0.0099999998 0 0 0 0 0
15.42 73.139999 0.02 0 0 0 0 0
51.700001 82.720001 -1.38 0 0 0 0 0
57.240002 57.049999 5.4499998 0 0 0 0 0
17.92 -0.46000001 3.21 0 0 0 0 0
75.040001 -0.79000002 4.5300002 0 0 0 0 0
1.63 37.470001 5.8099999 0 0 0 0 0
51.66 71.720001 5.4499998 0 0 0 0 0
-1.89 61.869999 -4.0700002 0 0 0 0 0
17.24 14.98 8.1000004 0 0 0 0 0
28.209999 86.099998 -0.87 0 0 0 0 0
26.940001 73.120003 -6.7600002 0 0 0 0 0
66.629997 30.67 8.3800001 0 0 0 0 0
44.880001 69.559998 2.1900001 0 0 0 0 0
21.379999 19.459999 -1.01 0 0 0 0 0
70 2.8 -8.3599997 0 0 0 0 0
69.790001 53.389999 -1.54 0 0 0 0 0
4.7199998 51.310001 -8.3900003 0 0 0 0 0
75.849998 65.660004 -3.55 0 0 0 0 0
7.7600002 -4.3200002 0.0099999998 0 0 0 0 0
3.79 0.98000002 1.58 0 0 0 0 0
74.760002 -4.6399999 6.21 0 0 0 0 0
76.110001 25.92 6.5999999 0 0 0 0 0
16.610001 24.85 -4.6300001 0 0 0 0 0
57.619999 18.24 2.6800001 0 0 0 0 0
-4.6999998 37.509998 -8.3900003 0 0 0 0 0
6.27 70.050003 6.3899999 0 0 0 0 0
-4 15.15 1.75 0 0 0 0 0
41.09 75.559998 -8.0500002 0 0 0 0 0
21.030001 73.120003 5.8299999 0 0 0 0 0
55.93 19.860001 -8.4099998 0 0 0 0 0
9.6000004 22.940001 -1.3099999 0 0 0 0 0
53.93 10.46 -1.26 0 0 0 0 0
9.1099997 64.769997 -1.3099999 0 0 0 0 0
57.07 56.919998 -1.15 0 0 0 0 0
60.119999 -1.54 4.54 0 0 0 0 0
48.990002 16.969999 6.0999999 0 0 0 0 0
5.6900001 70.760002 -8.3699999 0 0 0 0 0
72.059998 23.709999 -8.3699999 0 0 0 0 0
38.84 -1.63 2.3299999 0 0 0 0 0
-3.05 -4.5799999 -6.6799998 0 0 0 0 0
57.779999 58.450001 -6.2800002 0 0 0 0 0
68.330002 16.950001 -8.3699999 0 0 0 0 0
55.209999 57.630001 7.02 0 0 0 0 0
61.450001 4.52 -3.74 0 0 0 0 0
45.84 -2.6600001 2.29 0 0 0 0 0
6.8600001 81.800003 -8.3400002 0 0 0 0 0
24.450001 -4.48 -7.5 0 0 0 0 0
54.740002 9.0699997 -5.1700001 0 0 0 0 0
13.47 80.93 -4.1900001 0 0 0 0 0
1.5599999 17.73 -2.02 0 0 0 0 0
4.6700001 27.58 0.02 0 0 0 0 0
19.77 60.41 -1.9299999 0 0 0 0 0
11.4 9.7399998 -8.3699999 0 0 0 0 0
59.84 61.209999 2.25 0 0 0 0 0
60.169998 36.740002 -0.68000001 0 0 0 0 0
33.43 13.24 -2.8900001 0 0 0 0 0
40.720001 5.6300001 -4.8699999 0 0 0 0 0
20.459999 11.52 0.039999999 0 0 0 0 0
-1.73 84.040001 -7.96 0 0 0 0 0
-8.9799995 86.839996 -5.1199999 0 0 0 0 0
24.870001 11.28 -1.26 0 0 0 0 0
48.950001 64.75 -8.3900003 0 0 0 0 0
34.299999 16.15 -6.25 0 0 0 0 0
58.099998 28.15 3.8499999 0 0 0 0 0
67.639999 28.99 -4.04 0 0 0 0 0
15.04 77.910004 -8.3699999 0 0 0 0 0
50.720001 -4.6100001 1.95 0 0 0 0 0
20.610001 16.42 0.17 0 0 0 0 0
71.370003 42.310001 0 0 0 0 0 0
47.939999 16.83 0.050000001 0 0 0 0 0
-8.5900002 13.46 -3.5899999 0 0 0 0 0
27.23 9.1000004 -3.76 0 0 0 0 0
42.369999 -1.63 0.15000001 0 0 0 0 0
74.029999 42.18 0.0099999998 0 0 0 0 0
2.0599999 -1.8099999 -3.8499999 0 0 0 0 0
62.189999 70.519997 -0.14 0 0 0 0 0
60.34 37.66 -4 0 0 0 0 0
60.939999 80.879997 -1.36 0 0 0 0 0
-6.9000001 -3.6400001 7.77 0 0 0 0 0
40.880001 65.519997 -7.5 0 0 0 0 0
2.8 0.60000002 5.4499998 0 0 0 0 0
-0.63 77.970001 -8.3699999 0 0 0 0 0
-6.5300002 36.169998 -7.3200002 0 0 0 0 0
72.050003 37.48 -0.93000001 0 0 0 0 0
59.549999 18.040001 -8.3999996 0 0 0 0 0
7.1500001 86.550003 -8.4200001 0 0 0 0 0
55.849998 72.699997 -6.5900002 0 0 0 0 0
49.779999 17.57 6.29 0 0 0 0 0
-4.3099999 35.029999 0 0 0 0 0 0
-2.4200001 14.55 -7.1999998 0 0 0 0 0
65.620003 30.639999 -4.1900001 0 0 0 0 0
15.34 26.41 -8.2299995 0 0 0 0 0
21.559999 9.1300001 -0.63 0 0 0 0 0
8.9399996 0.97000003 1.14 0 0 0 0 0
68.080002 22.42 -3.74 0 0 0 0 0
70.82 78.230003 -3.26 0 0 0 0 0
3.3299999 67.790001 7.77 0 0 0 0 0
46.299999 12.31 1.1 0 0 0 0 0
74.190002 15.78 7.7600002 0 0 0 0 0
19.18 86.839996 -2.9100001 0 0 0 0 0
69.279999 76.290001 -5.4499998 0 0 0 0 0
12.36 52.439999 7.02 0 0 0 0 0
38.169998 15.76 -1.33 0 0 0 0 0
-9.9899998 9.0699997 0.72000003 0 0 0 0 0
17.389999 17.790001 -3.3499999 0 0 0 0 0
15.24 22.700001 6.8000002 0 0 0 0 0
67.019997 8.1000004 -8.3699999 0 0 0 0 0
69.910004 7.6199999 1.67 0 0 0 0 0
8.6800003 51.419998 -1.86 0 0 0 0 0
46.080002 4.3600001 -8.3800001 0 0 0 0 0
14.99 -1.59 4.9699998 0 0 0 0 0
3 48.889999 1.86 0 0 0 0 0
28.92 72.440002 -0.70999998 0 0 0 0 0
15.41 12.13 -5.23 0 0 0 0 0
-2.73 8.5200005 -3.1700001 0 0 0 0 0
-0.89999998 42.93 6.4200001 0 0 0 0 0
1.27 72.040001 -1.51 0 0 0 0 0
12.01 56.209999 6.23 0 0 0 0 0
-7.8699999 14.16 -6.54 0 0 0 0 0
52.110001 59.830002 -8.0500002 0 0 0 0 0
27.209999 79.919998 -1.47 0 0 0 0 0
76.580002 83.629997 -1.97 0 0 0 0 0
14.6 11.46 6.4899998 0 0 0 0 0
3.1800001 51.990002 6.0900002 0 0 0 0 0
32.279999 0.87 -7.27 0 0 0 0 0
62.130001 23.290001 8.4300003 0 0 0 0 0
58.669998 57.099998 5.9899998 0 0 0 0 0
70.919998 1.64 -5.8699999 0 0 0 0 0
55.450001 11.51 1.16 0 0 0 0 0
51.040001 69.339996 6.0999999 0 0 0 0 0
54.299999 59.869999 0.029999999 0 0 0 0 0
-11.2 60.330002 -7.6799998 0 0 0 0 0
22.379999 62.330002 -7.21 0 0 0 0 0
29.41 72.779999 -8.3900003 0 0 0 0 0
1.22 37.27 -0.56999999 0 0 0 0 0
10.42 25.51 7.46 0 0 0 0 0
72.629997 79.129997 -8.0600004 0 0 0 0 0
68.529999 83.970001 -1.37 0 0 0 0 0
56.59 54.790001 3.03 0 0 0 0 0
17.139999 3.1099999 -4.27 0 0 0 0 0
13.83 13.2 6.4899998 0 0 0 0 0
42.09 65.309998 0.14 0 0 0 0 0
6.3099999 50.77 -4.3699999 0 0 0 0 0
68.839996 11.07 -3.78 0 0 0 0 0
11.33 16.16 8.0900002 0 0 0 0 0
9.9700003 59.080002 -4.0300002 0 0 0 0 0
-5.4499998 15.08 -4.1700001 0 0 0 0 0
59.740002 34.580002 -6.4299998 0 0 0 0 0
14.75 54.82 6.5799999 0 0 0 0 0
5.8099999 5.77 -4.3299999 0 0 0 0 0
6.1900001 85.82 -2.1900001 0 0 0 0 0
58.799999 79.93 -8.2799997 0 0 0 0 0
75.849998 -0.75 5.02 0 0 0 0 0
55.599998 18.08 -0.55000001 0 0 0 0 0
-3.8900001 15.68 -3.8599999 0 0 0 0 0
23.27 12.74 -8.4099998 0 0 0 0 0
-6.5599999 7.8099999 6.9200001 0 0 0 0 0
17.469999 -3.9300001 -6.6100001 0 0 0 0 0
70.82 78.220001 -5.0500002 0 0 0 0 0
60.52 60.27 4.3499999 0 0 0 0 0
21.940001 16.719999 0.17 0 0 0 0 0
45.889999 70.360001 0.0099999998 0 0 0 0 0
67.660004 83.190002 -1.37 0 0 0 0 0
-8.96 -3.9400001 -0.68000001 0 0 0 0 0
3.54 70.089996 2.4300001 0 0 0 0 0
26.530001 78.760002 -0.54000002 0 0 0 0 0
43.73 4.6999998 0.79000002 0 0 0 0 0
58.990002 -0.31 -6.6999998 0 0 0 0 0
-6.54 6.46 -5.6999998 0 0 0 0 0
-7.29 76.900002 -8.4099998 0 0 0 0 0
1.55 9.8599997 -8.2399998 0 0 0 0 0
-8.4700003 11.19 -8.2200003 0 0 0 0 0
49.25 16.620001 3.95 0 0 0 0 0
60.509998 48.150002 1.73 0 0 0 0 0
9.6599998 73.139999 6.5900002 0 0 0 0 0
51.459999 12.87 -3 0 0 0 0 0
34.240002 86.82 -4.96 0 0 0 0 0
8.3999996 64.760002 -0.83999997 0 0 0 0 0
55.849998 23.18 6.7800002 0 0 0 0 0
69.660004 47.91 0 0 0 0 0 0
42.07 66.389999 4.2199998 0 0 0 0 0
72.849998 63.900002 0.02 0 0 0 0 0
5.0799999 33.849998 7.5900002 0 0 0 0 0
44.880001 69.800003 5.1100001 0 0 0 0 0
64.360001 17.26 -6.9899998 0 0 0 0 0
2.21 86.839996 -3.5899999 0 0 0 0 0
53.68 66.610001 0.0099999998 0 0 0 0 0
68.239998 3.71 -8.3599997 0 0 0 0 0
12.87 -1.42 3.8499999 0 0 0 0 0
73.82 6.4000001 4.9899998 0 0 0 0 0
69.459999 19.51 7.3000002 0 0 0 0 0
45.59 71.129997 6.8600001 0 0 0 0 0
4.7199998 29.059999 7.77 0 0 0 0 0
23.440001 15.55 3.6700001 0 0 0 0 0
76.650002 38.369999 2.24 0 0 0 0 0
35.200001 10.18 -7.79 0 0 0 0 0
-0.93000001 48.419998 -8.3800001 0 0 0 0 0
21.58 9.1000004 -6.27 0 0 0 0 0
11.59 4.8699999 -8.3699999 0 0 0 0 0
-2.1199999 42.07 7.8400002 0 0 0 0 0
-2.6600001 9.6499996 0.0099999998 0 0 0 0 0
12.98 9.6499996 -8.1999998 0 0 0 0 0
60.049999 35.810001 2.8 0 0 0 0 0
20.77 9.1400003 4.4400001 0 0 0 0 0
56.279999 24.35 -7.6300001 0 0 0 0 0
7.8000002 33.650002 -3.3699999 0 0 0 0 0
74.459999 22.190001 -0.58999997 0 0 0 0 0
24.6 85.099998 -8.3500004 0 0 0 0 0
72.800003 5.9499998 7.8400002 0 0 0 0 0
-8.3100004 28.65 6.96 0 0 0 0 0
73.650002 43.040001 4.2800002 0 0 0 0 0
58.220001 54.400002 -0.56 0 0 0 0 0
39.540001 73.110001 -4.54 0 0 0 0 0
6.4499998 20.219999 -7.1599998 0 0 0 0 0
48.279999 4.9099998 -5.0100002 0 0 0 0 0
32.279999 0.79000002 -6.4200001 0 0 0 0 0
30.57 73.120003 4.4699998 0 0 0 0 0
22.780001 68.230003 6.9099998 0 0 0 0 0
70.809998 78.839996 -2.6300001 0 0 0 0 0
-4.6799998 4.9899998 7.7199998 0 0 0 0 0
70.43 83.860001 -1.95 0 0 0 0 0
8.2200003 62.59 -1.98 0 0 0 0 0
62.900002 24.18 5.21 0 0 0 0 0
6.8899999 15.71 3.77 0 0 0 0 0
5.9200001 82.760002 -1.4 0 0 0 0 0
62.799999 36.330002 2.8 0 0 0 0 0
76.610001 65.029999 -2.1099999 0 0 0 0 0
67.610001 60.380001 5.0799999 0 0 0 0 0
65.489998 -3.95 7.1599998 0 0 0 0 0
0.079999998 11.96 -2.7 0 0 0 0 0
24.59 66.699997 7.7600002 0 0 0 0 0
69.580002 12.41 -8.3599997 0 0 0 0 0
-7.8699999 80 -1.5 0 0 0 0 0
1.63 72.879997 -8.3699999 0 0 0 0 0
67.769997 46.419998 -8.3900003 0 0 0 0 0
56.200001 3.55 -5.1700001 0 0 0 0 0
58.189999 18.24 2 0 0 0 0 0
-10.44 49.049999 -6.8499999 0 0 0 0 0
43.310001 69.300003 -8.3900003 0 0 0 0 0
-2.4200001 76.57 -4.0300002 0 0 0 0 0
-11.17 77.199997 -2.9200001 0 0 0 0 0
74.410004 8.3100004 3.9000001 0 0 0 0 0
-2.6500001 66.279999 -3.4400001 0 0 0 0 0
61.290001 28.49 -5.1500001 0 0 0 0 0
-10.78 66.610001 -6.9499998 0 0 0 0 0
7.6100001 45.799999 -0.0099999998 0 0 0 0 0
-4.6799998 -3.1800001 4.29 0 0 0 0 0
-6.25 4.3000002 -6.1599998 0 0 0 0 0
62.880001 7.5300002 -5.4299998 0 0 0 0 0
-7.6799998 41.369999 0.079999998 0 0 0 0 0
53.75 68.599998 5.0300002 0 0 0 0 0
-4.5300002 21.85 -8.25 0 0 0 0 0
9.1099997 5.7199998 -1.8 0 0 0 0 0
8.0600004 28.459999 -2.3099999 0 0 0 0 0
76.599998 15.14 1.62 0 0 0 0 0
73.959999 50.98 4.2800002 0 0 0 0 0
15.05 16.059999 6.9400001 0 0 0 0 0
45.299999 14.55 7.75 0 0 0 0 0
29.889999 69.480003 -8.2200003 0 0 0 0 0
36.450001 72.389999 0.0099999998 0 0 0 0 0
24.01 66.18 -3.8 0 0 0 0 0
24.719999 86.830002 -3.26 0 0 0 0 0
67.720001 35.400002 6.8800001 0 0 0 0 0
47.209999 12.29 6.71 0 0 0 0 0
30.530001 86.209999 -2.0899999 0 0 0 0 0
18.809999 18.809999 -4.7399998 0 0 0 0 0
10.36 48.43 7.0900002 0 0 0 0 0
48.82 11.44 -3.4300001 0 0 0 0 0
66.650002 47.860001 -3.99 0 0 0 0 0
9.9700003 17 -4.6199999 0 0 0 0 0
0.77999997 51.41 -7.5700002 0 0 0 0 0
75.639999 8.3100004 0.02 0 0 0 0 0
24.959999 65.57 7.77 0 0 0 0 0
30.870001 65.650002 -2.03 0 0 0 0 0
60.389999 32.43 -5.9899998 0 0 0 0 0
-3.29 41.220001 0 0 0 0 0 0
58.73 -2.6900001 -0.89999998 0 0 0 0 0
16.91 20.469999 4.9000001 0 0 0 0 0
12.8 56.720001 -0.0099999998 0 0 0 0 0
-9.2700005 75.800003 -8.3999996 0 0 0 0 0
18.51 14.83 0.029999999 0 0 0 0 0
66.169998 41.220001 -4.9499998 0 0 0 0 0
58.5 25.389999 7.8200002 0 0 0 0 0
-3.96 -2.0599999 -7.0100002 0 0 0 0 0
-11.2 61.41 -4.8499999 0 0 0 0 0
-9.1700001 82.860001 -8.3699999 0 0 0 0 0
3.8 86.849998 -3.9000001 0 0 0 0 0
69.720001 13.48 -8.3500004 0 0 0 0 0
32.880001 86.169998 -1.76 0 0 0 0 0
52.790001 63.860001 -1.79 0 0 0 0 0
3.76 86.849998 -3.0699999 0 0 0 0 0
1 30.459999 1.02 0 0 0 0 0
55.470001 18.200001 3.53 0 0 0 0 0
16.02 12.57 -7.46 0 0 0 0 0
65.470001 6.8499999 -3.6099999 0 0 0 0 0
68.389999 19.139999 4.29 0 0 0 0 0
68.699997 -1.75 -3.77 0 0 0 0 0
35.419998 13.54 -3.6199999 0 0 0 0 0
45.580002 12.3 -4.1599998 0 0 0 0 0
64.580002 27.690001 -0.33000001 0 0 0 0 0
5.4099998 61.290001 7.0799999 0 0 0 0 0
50.889999 68.019997 7.3200002 0 0 0 0 0
16.33 -0.61000001 2.1300001 0 0 0 0 0
49.41 13.11 6.1799998 0 0 0 0 0
69.82 7.2800002 -6.46 0 0 0 0 0
68.690002 24.959999 -3.8099999 0 0 0 0 0
60.459999 29.26 5.3899999 0 0 0 0 0
36.18 84.470001 -5.4200001 0 0 0 0 0
59.950001 67.190002 0.85000002 0 0 0 0 0
-7.7600002 49.040001 -4.96 0 0 0 0 0
-6.8600001 7.7800002 -0.51999998 0 0 0 0 0
69.599998 56.009998 -3.8099999 0 0 0 0 0
60.509998 47.369999 1.7 0 0 0 0 0
9.5100002 9.1400003 5.0500002 0 0 0 0 0
53.540001 58.580002 3.6900001 0 0 0 0 0
8.3500004 23.27 4.8000002 0 0 0 0 0
-0.81999999 42.759998 -8.3800001 0 0 0 0 0
68.589996 41.509998 0 0 0 0 0 0
3.1300001 31.84 4.8299999 0 0 0 0 0
8.1700001 28.870001 0 0 0 0 0 0
26.870001 80.589996 -0.63999999 0 0 0 0 0
14.12 74.690002 -5.3299999 0 0 0 0 0
-1.37 70.949997 -2.3499999 0 0 0 0 0
16.23 19.42 -4.71 0 0 0 0 0
1.16 33.700001 -3.97 0 0 0 0 0
-2.0799999 59.459999 -3.9100001 0 0 0 0 0
67.669998 46.099998 0 0 0 0 0 0
19.27 9.1300001 2.78 0 0 0 0 0
-7.1500001 67.139999 -8.3800001 0 0 0 0 0
6.3600001 17.370001 -7.3400002 0 0 0 0 0
57.689999 2.72 -8.3699999 0 0 0 0 0
22.459999 12.56 -7.8299999 0 0 0 0 0
-1.27 80.199997 -3.1099999 0 0 0 0 0
62.959999 70.209999 0.87 0 0 0 0 0
55.23 63.16 7.8400002 0 0 0 0 0
-8.96 28.65 4.02 0 0 0 0 0
-2.5699999 24.309999 6.46 0 0 0 0 0
13.15 28.790001 -5.6399999 0 0 0 0 0
70.800003 71.919998 -4.4299998 0 0 0 0 0
48.869999 6.3499999 -5.1999998 0 0 0 0 0
56.689999 78.389999 -0.57999998 0 0 0 0 0
72.860001 39.200001 4.2800002 0 0 0 0 0
57.5 29.110001 -6.5799999 0 0 0 0 0
65.059998 -0.94999999 4.8600001 0 0 0 0 0
62.869999 24.879999 -6.6900001 0 0 0 0 0
-6.73 11.96 5.1199999 0 0 0 0 0
60.630001 27.889999 -1.09 0 0 0 0 0
-8.7399998 20.440001 0 0 0 0 0 0
74.230003 60.330002 -4.29 0 0 0 0 0
72.190002 51.630001 -6.27 0 0 0 0 0
55.18 7.5500002 -2.3900001 0 0 0 0 0
13.45 10.46 6.6999998 0 0 0 0 0
28.33 3.0899999 -5.3699999 0 0 0 0 0
60.110001 74.599998 -6.7800002 0 0 0 0 0
37.169998 9.0799999 -5.8200002 0 0 0 0 0
60.720001 0.92000002 0.059999999 0 0 0 0 0
63.57 44.27 -3.78 0 0 0 0 0
45.900002 18.33 -4.9899998 0 0 0 0 0
75.099998 85.849998 -0.60000002 0 0 0 0 0
-11.26 2.8800001 -3.6400001 0 0 0 0 0
68.07 34.25 -0.93000001 0 0 0 0 0
13.36 27.17 5.1700001 0 0 0 0 0
65.489998 7.8899999 -3.5999999 0 0 0 0 0
-2.6099999 35.889999 5.5599999 0 0 0 0 0
39.189999 3.8900001 -4.9400001 0 0 0 0 0
24.41 6.9499998 -7.0900002 0 0 0 0 0
3.24 60.82 6.6700001 0 0 0 0 0
67.349998 81.120003 -8.2600002 0 0 0 0 0
21.15 86.860001 -7.3400002 0 0 0 0 0
-3.5599999 53.099998 -5.4200001 0 0 0 0 0
8.9499998 83.370003 -8.3800001 0 0 0 0 0
56.32 64.059998 -3.45 0 0 0 0 0
12.36 5.21 -8.3699999 0 0 0 0 0
9.5699997 11.48 -5.9299998 0 0 0 0 0
22.059999 7.5799999 -6.1300001 0 0 0 0 0
18.4 63.889999 4.9200001 0 0 0 0 0
65.839996 30.67 4.9200001 0 0 0 0 0
70.019997 21.809999 6.6500001 0 0 0 0 0
42.82 73.010002 -8.3800001 0 0 0 0 0
1.62 2.5999999 6.3099999 0 0 0 0 0
68.860001 72.419998 -8.3800001 0 0 0 0 0
24.959999 82.129997 -1.38 0 0 0 0 0
-11.16 22.33 3.73 0 0 0 0 0
57.939999 28.139999 4.6799998 0 0 0 0 0
12.96 73.129997 3.6700001 0 0 0 0 0
-7.1199999 14.38 -1.09 0 0 0 0 0
61.91 0.82999998 -7.1399999 0 0 0 0 0
36.639999 13.53 -3.6300001 0 0 0 0 0
-11.09 80.610001 -0.88999999 0 0 0 0 0
53.59 23.75 0.47 0 0 0 0 0
72.75 63.110001 -2.52 0 0 0 0 0
5.3600001 48.599998 -6.0999999 0 0 0 0 0
14.33 66.57 -5.9400001 0 0 0 0 0
1.22 18.280001 7.4899998 0 0 0 0 0
63.709999 80.709999 -2.9000001 0 0 0 0 0
54.68 18.030001 -7.0799999 0 0 0 0 0
9.8199997 67.550003 -5.9499998 0 0 0 0 0
68.699997 10.18 6.9899998 0 0 0 0 0
37.049999 66.879997 4.8699999 0 0 0 0 0
56.400002 23.09 0 0 0 0 0 0
23.17 0.95999998 2.25 0 0 0 0 0
0.40000001 52.459999 -5.1199999 0 0 0 0 0
-3.4100001 44.18 0 0 0 0 0 0
59.57 71.940002 4.3400002 0 0 0 0 0
76.550003 65.07 -8.3900003 0 0 0 0 0
5.2600002 30.190001 7.1799998 0 0 0 0 0
8.2299995 81.639999 -0.60000002 0 0 0 0 0
48.860001 17.48 -3.45 0 0 0 0 0
44.630001 3.99 0.52999997 0 0 0 0 0
-1.36 41.139999 -2.97 0 0 0 0 0
-11.2 56.560001 -5.27 0 0 0 0 0
73.940002 9.79 4.8600001 0 0 0 0 0
-8.8000002 86.910004 -8.4499998 0 0 0 0 0
49.799999 82.18 -0.91000003 0 0 0 0 0
44.57 70.059998 -1.1900001 0 0 0 0 0
69.010002 73.339996 -3.8 0 0 0 0 0
70.040001 -3.24 -8.3599997 0 0 0 0 0
66.199997 12.85 7.77 0 0 0 0 0
12.84 30.799999 2.3399999 0 0 0 0 0
74.5 25.290001 -8.3699999 0 0 0 0 0
-8.25 78.910004 -1.0700001 0 0 0 0 0
39.360001 13.54 0.059999999 0 0 0 0 0
21.219999 -1.6 6.6100001 0 0 0 0 0
18.440001 18.780001 4.9499998 0 0 0 0 0
64.370003 23.459999 -2.22 0 0 0 0 0
76.610001 47.110001 -5.04 0 0 0 0 0
64.82 18.76 -3.71 0 0 0 0 0
71.480003 23.809999 5.21 0 0 0 0 0
36.450001 77.400002 -3.79 0 0 0 0 0
4.7199998 20.969999 -8.3800001 0 0 0 0 0
52.889999 79.540001 -8.3699999 0 0 0 0 0
0.88999999 64.779999 -0.63999999 0 0 0 0 0
25.940001 78.059998 -0.54000002 0 0 0 0 0
56.639999 75.290001 -8.9499998 0 0 0 0 0
70.550003 1.6900001 5.0900002 0 0 0 0 0
42.189999 16.299999 -3.5899999 0 0 0 0 0
66.849998 63.310001 7.4699998 0 0 0 0 0
51.700001 78.699997 -1.37 0 0 0 0 0
29.129999 3.0899999 -5.98 0 0 0 0 0
40.130001 4.3099999 -5.5700002 0 0 0 0 0
73.139999 65.660004 -2.46 0 0 0 0 0
58.360001 59.009998 5.75 0 0 0 0 0
76.589996 12.09 1.73 0 0 0 0 0
70.470001 55.75 -8.3999996 0 0 0 0 0
61.59 74.900002 -6.54 0 0 0 0 0
72.980003 33.599998 7.48 0 0 0 0 0
46.869999 73.120003 1.83 0 0 0 0 0
-10.31 75.620003 -8.3199997 0 0 0 0 0
69.82 9.21 -6.8600001 0 0 0 0 0
-2.6199999 34.93 5.3600001 0 0 0 0 0
-3.72 26.6 -5.3200002 0 0 0 0 0
-5.7800002 6.3200002 -5.3600001 0 0 0 0 0
17.469999 -3.8800001 -8.3599997 0 0 0 0 0
52.060001 13.05 7.1700001 0 0 0 0 0
4.8600001 68.57 -4.54 0 0 0 0 0
54.709999 9.1300001 -0.60000002 0 0 0 0 0
35.150002 69.839996 7.4499998 0 0 0 0 0
68.720001 42.439999 -8.4099998 0 0 0 0 0
55.240002 14.04 4.5999999 0 0 0 0 0
-1.67 56.93 -8.3800001 0 0 0 0 0
41.810001 71.599998 -2.25 0 0 0 0 0
13.44 79.459999 -7.9699998 0 0 0 0 0
12.34 18.049999 0.039999999 0 0 0 0 0
21.379999 18.549999 7.5500002 0 0 0 0 0
55.470001 56.18 -6.5799999 0 0 0 0 0
39.689999 -0.11 -4.1100001 0 0 0 0 0
73.550003 39.529999 -8.3100004 0 0 0 0 0
70.580002 53.25 -1.54 0 0 0 0 0
60.52 75.309998 -1.38 0 0 0 0 0
-4.4099998 22.190001 0 0 0 0 0 0
63.360001 63.34 -4.0500002 0 0 0 0 0
-1.05 6.0799999 -6.7600002 0 0 0 0 0
41.91 73.120003 6.0700002 0 0 0 0 0
19.219999 60.169998 -8.3699999 0 0 0 0 0
15.55 65.129997 7.46 0 0 0 0 0
28.16 66.269997 -0.61000001 0 0 0 0 0
24.059999 15.21 -8.3999996 0 0 0 0 0
-3.0999999 85.010002 -7.8800001 0 0 0 0 0
43.540001 16.93 -8.3900003 0 0 0 0 0
72.900002 5.9099998 4.4899998 0 0 0 0 0
67.269997 8.9899998 -3.0599999 0 0 0 0 0
5.9099998 33.91 7.75 0 0 0 0 0
-5.6199999 4.3200002 5.5700002 0 0 0 0 0
36.110001 73.120003 2.5 0 0 0 0 0
38.02 70.389999 -8.3999996 0 0 0 0 0
7.0900002 17.610001 4.8600001 0 0 0 0 0
72.480003 63.380001 -4.21 0 0 0 0 0
33.990002 13.09 8.1000004 0 0 0 0 0
47.119999 71.150002 -0.85000002 0 0 0 0 0
14.19 86.209999 -1.0599999 0 0 0 0 0
75.309998 47.84 -0.93000001 0 0 0 0 0
66.639999 2.1800001 6.6300001 0 0 0 0 0
10.83 37.77 1.12 0 0 0 0 0
29.68 71.599998 7.7800002 0 0 0 0 0
54.810001 73.5 0.0099999998 0 0 0 0 0
71.110001 3.45 0.44 0 0 0 0 0
70.379997 14.04 0.23999999 0 0 0 0 0
41.310001 10.5 4.8699999 0 0 0 0 0
1.66 42.009998 4.2199998 0 0 0 0 0
62.84 10.77 -3.6199999 0 0 0 0 0
51.790001 20.24 -3.1500001 0 0 0 0 0
1.15 9.1999998 -8.3599997 0 0 0 0 0
62.720001 36.889999 -6.54 0 0 0 0 0
55.599998 86.309998 -3.54 0 0 0 0 0
55.119999 -3.02 -8.3599997 0 0 0 0 0
17.309999 72 -1.8099999 0 0 0 0 0
35.48 3.0999999 -6.3000002 0 0 0 0 0
15.27 9.1499996 2.3099999 0 0 0 0 0
72.5 36.169998 7.48 0 0 0 0 0
70 74.349998 -3.29 0 0 0 0 0
30.290001 65.529999 -1.25 0 0 0 0 0
20.860001 86.830002 -2.52 0 0 0 0 0
60.43 35.68 -1.9400001 0 0 0 0 0
-3.48 -3.9300001 7.3200002 0 0 0 0 0
-0.039999999 43.240002 6.3200002 0 0 0 0 0
14.32 26.76 8.1999998 0 0 0 0 0
37.389999 86.809998 -1.16 0 0 0 0 0
22.42 14.52 -8.3999996 0 0 0 0 0
1.53 11.25 -2.5999999 0 0 0 0 0
38.57 12.66 6.25 0 0 0 0 0
63.630001 39.619999 1.34 0 0 0 0 0
51.66 72.07 6.1999998 0 0 0 0 0
26.5 17.82 -3.79 0 0 0 0 0
4.98 59.5 -4.4200001 0 0 0 0 0
76.559998 21.959999 -2.6600001 0 0 0 0 0
19.75 1.74 -3.75 0 0 0 0 0
62.740002 49.32 -6.3299999 0 0 0 0 0
31.01 69.209999 0 0 0 0 0 0
72.18 47.880001 -2.79 0 0 0 0 0
49.169998 65.68 5.9699998 0 0 0 0 0
8.96 58.080002 -1.99 0 0 0 0 0
61.860001 23.1 1.3099999 0 0 0 0 0
-8.1099997 8.9300003 -0.60000002 0 0 0 0 0
62.650002 -4.6500001 -1.49 0 0 0 0 0
37.040001 70.010002 -0.62 0 0 0 0 0
68.32 38.529999 -8.3999996 0 0 0 0 0
69.769997 27.32 -8.25 0 0 0 0 0
67.449997 43.389999 -3.53 0 0 0 0 0
3.5699999 58.720001 7.77 0 0 0 0 0
-0.94 38.759998 -2.21 0 0 0 0 0
56.91 4.1500001 -5.1999998 0 0 0 0 0
54.669998 70.010002 0.0099999998 0 0 0 0 0
10.39 69.529999 -1.89 0 0 0 0 0
1.5700001 34.970001 -1.58 0 0 0 0 0
22.620001 9.1300001 2.9000001 0 0 0 0 0
11.32 46.970001 2.6099999 0 0 0 0 0
-6.54 2.9400001 -8.1300001 0 0 0 0 0
3.1199999 56.610001 -7.6799998 0 0 0 0 0
11.43 34.759998 4.5799999 0 0 0 0 0
13.4 78.059998 -6.3600001 0 0 0 0 0
27.440001 78.68 -0.58999997 0 0 0 0 0
52.889999 70.669998 -4.29 0 0 0 0 0
18.77 74.739998 -8.1000004 0 0 0 0 0
64.43 78.25 -2.3 0 0 0 0 0
14.7 7.29 -4.48 0 0 0 0 0
69.57 78.379997 -5.6799998 0 0 0 0 0
1.65 32.799999 1.12 0 0 0 0 0
57.169998 1.4 -3.75 0 0 0 0 0
22.459999 9.1199999 7.23 0 0 0 0 0
12.24 59.380001 -1.3099999 0 0 0 0 0
62.849998 18.25 -2.6800001 0 0 0 0 0
-1.41 74.57 -6.8099999 0 0 0 0 0
36.560001 67.379997 -8.3800001 0 0 0 0 0
-11.28 5.54 -6.5599999 0 0 0 0 0
18.68 60.68 0 0 0 0 0 0
36.240002 80.489998 -2.3800001 0 0 0 0 0
10.76 25.639999 -8.3599997 0 0 0 0 0
9.7799997 83.949997 -3.9300001 0 0 0 0 0
-8.0100002 13.77 0.0099999998 0 0 0 0 0
22.129999 10.22 4.0300002 0 0 0 0 0
31 7.5799999 -4.5500002 0 0 0 0 0
66.690002 14.62 3.6600001 0 0 0 0 0
70.940002 -4.6300001 0.67000002 0 0 0 0 0
6.27 70.260002 5.3499999 0 0 0 0 0
57.349998 18.24 1.73 0 0 0 0 0
42.259998 72.230003 -2.0799999 0 0 0 0 0
7.0799999 13.66 7.0799999 0 0 0 0 0
14.42 -0.80000001 3.95 0 0 0 0 0
8.6000004 16.83 6.0100002 0 0 0 0 0
58.82 31.969999 -8.5200005 0 0 0 0 0
22.6 84.300003 -0.86000001 0 0 0 0 0
45 7.02 -7.77 0 0 0 0 0
1.64 27.24 2.75 0 0 0 0 0
-2.45 23.639999 -4.5799999 0 0 0 0 0
10.58 61.470001 0.0099999998 0 0 0 0 0
45.470001 14.81 -2.1300001 0 0 0 0 0
-8.5799999 16.48 6.3000002 0 0 0 0 0
7.0700002 8.2399998 4.4299998 0 0 0 0 0
70.459999 22.139999 -4.7600002 0 0 0 0 0
17.49 6.9699998 -5.2399998 0 0 0 0 0
-3.4000001 64.080002 -8.3800001 0 0 0 0 0
55.330002 69.889999 -6.5599999 0 0 0 0 0
69.889999 7.6399999 3.45 0 0 0 0 0
63.490002 6.3499999 -4.48 0 0 0 0 0
-5.0300002 58.630001 -8.3699999 0 0 0 0 0
6.23 33.73 -0.0099999998 0 0 0 0 0
4.0500002 53.900002 7.0900002 0 0 0 0 0
52.560001 69.879997 -6.5799999 0 0 0 0 0
-8.8299999 49.369999 -8.3599997 0 0 0 0 0
46.700001 74.730003 -8.5100002 0 0 0 0 0
53.389999 62.98 -0.61000001 0 0 0 0 0
11.26 10.82 0.94999999 0 0 0 0 0
5.8499999 58.830002 -4.04 0 0 0 0 0
-2.3499999 62.5 -3.3599999 0 0 0 0 0
49.080002 62.130001 -5.29 0 0 0 0 0
0.63999999 87.870003 -7.73 0 0 0 0 0
10.69 19.26 -0.89999998 0 0 0 0 0
25.76 84.059998 -8.3800001 0 0 0 0 0
-10.52 81.769997 -8.3699999 0 0 0 0 0
0.029999999 -0.63999999 2.1700001 0 0 0 0 0
69.25 34.330002 -8.3900003 0 0 0 0 0
17.540001 -2.1800001 -8.3699999 0 0 0 0 0
59.799999 25.33 6.48 0 0 0 0 0
-2.9000001 58.540001 -8.3699999 0 0 0 0 0
73.330002 25.84 7.77 0 0 0 0 0
64.459999 15.16 -8.3699999 0 0 0 0 0
-8.1099997 9.1599998 6.8099999 0 0 0 0 0
13.14 30.110001 -6.29 0 0 0 0 0
72.010002 16.719999 0 0 0 0 0 0
57.610001 73.080002 -8.2799997 0 0 0 0 0
15.47 11.44 -4.6999998 0 0 0 0 0
21.07 72.199997 -2.0999999 0 0 0 0 0
-0.34999999 50.279999 -2.1800001 0 0 0 0 0
62.830002 10.02 7.48 0 0 0 0 0
-1.45 34.939999 5 0 0 0 0 0
7.9200001 86.849998 -5.6999998 0 0 0 0 0
28.76 85.400002 -0.85000002 0 0 0 0 0
72.209999 28.82 4.6999998 0 0 0 0 0
7.9699998 19.190001 0 0 0 0 0 0
29.790001 65.410004 -2.6199999 0 0 0 0 0
54.73 16.99 -6.3200002 0 0 0 0 0
-10.4 61.919998 -1.91 0 0 0 0 0
62.73 38.970001 -6.3499999 0 0 0 0 0
55.360001 69.18 5.73 0 0 0 0 0
55.619999 75.239998 -7.3299999 0 0 0 0 0
45.580002 66.910004 3.4000001 0 0 0 0 0
46.419998 12.38 -7.6900001 0 0 0 0 0
47.709999 14.47 6.75 0 0 0 0 0
-4.5100002 31.540001 -4.1999998 0 0 0 0 0
44.880001 70.75 5.1100001 0 0 0 0 0
36.790001 3.0999999 -5.04 0 0 0 0 0
16.43 69.089996 6.4400001 0 0 0 0 0
37.220001 15.26 5.0599999 0 0 0 0 0
27.309999 9.1099997 6.3499999 0 0 0 0 0
8.54 7.5900002 -8.3699999 0 0 0 0 0
-7.6399999 37.779999 -7.4499998 0 0 0 0 0
71.709999 33.509998 -8.0500002 0 0 0 0 0
15.69 62.279999 0.0099999998 0 0 0 0 0
8.8999996 13.82 -3.3299999 0 0 0 0 0
21.66 68.029999 4.5700002 0 0 0 0 0
14.19 73.099998 -7.23 0 0 0 0 0
-2.5699999 15.54 -3.3399999 0 0 0 0 0
60.23 72.970001 -6.52 0 0 0 0 0
70.580002 45.720001 -0.92000002 0 0 0 0 0
45.439999 -4.6399999 -6.6100001 0 0 0 0 0
15.44 20 -6.9000001 0 0 0 0 0
60.669998 63.009998 2.1600001 0 0 0 0 0
22.43 80.190002 -0.54000002 0 0 0 0 0
17.16 84.209999 -0.85000002 0 0 0 0 0
-5.2399998 16.379999 -3.98 0 0 0 0 0
76.589996 11.56 6.0799999 0 0 0 0 0
-9.6899996 63.380001 -8.3699999 0 0 0 0 0
3.0899999 16.290001 -7.71 0 0 0 0 0
44.619999 11.08 -6.7199998 0 0 0 0 0
-5.25 61.07 -8.3699999 0 0 0 0 0
-11.14 40.380001 0.0099999998 0 0 0 0 0
-0.56 69.650002 -1.53 0 0 0 0 0
36.830002 66.080002 3.6400001 0 0 0 0 0
6.4400001 12.89 -3.5599999 0 0 0 0 0
55.150002 65.690002 -0.31 0 0 0 0 0
60.150002 6.0300002 -1.05 0 0 0 0 0
-6.1399999 2.77 6.5100002 0 0 0 0 0
3.01 49.43 8.0900002 0 0 0 0 0
-2.3699999 72.120003 -4.1100001 0 0 0 0 0
22.940001 62.669998 -7.6700001 0 0 0 0 0
10.81 23.43 -1.36 0 0 0 0 0
26.110001 67.459999 -1.36 0 0 0 0 0
18.98 9.1000004 -3.6199999 0 0 0 0 0
13.3 12.4 5.98 0 0 0 0 0
22.809999 73.120003 4.3600001 0 0 0 0 0
30.49 -1.61 6.7399998 0 0 0 0 0
10.73 57.23 7.8200002 0 0 0 0 0
14.82 18.43 -6.4000001 0 0 0 0 0
9.7299995 66.809998 7.0900002 0 0 0 0 0
45.220001 -0.44999999 5.3400002 0 0 0 0 0
45.779999 80.699997 -0.69999999 0 0 0 0 0
-0.31 11.19 3.9400001 0 0 0 0 0
57.07 54.049999 7.0700002 0 0 0 0 0
8.4499998 34.34 -1.5 0 0 0 0 0
70.279999 38.259998 4.2800002 0 0 0 0 0
14.3 56.459999 5.1799998 0 0 0 0 0
12.35 84.910004 -7.8499999 0 0 0 0 0
-7.8299999 -0.20999999 1.34 0 0 0 0 0
64.279999 63.84 7.4699998 0 0 0 0 0
-4.0599999 50.209999 -8.3699999 0 0 0 0 0
19.440001 22.059999 6.6799998 0 0 0 0 0
70.360001 37.240002 -3.1099999 0 0 0 0 0
49.119999 9.0799999 7.1199999 0 0 0 0 0
-3.0899999 1.33 -3.79 0 0 0 0 0
19.43 9.9700003 -4.71 0 0 0 0 0
73.849998 55.43 -6.8299999 0 0 0 0 0
-2.6099999 41.02 5.8099999 0 0 0 0 0
37.970001 15 2.6099999 0 0 0 0 0
6.5900002 23.48 5.1799998 0 0 0 0 0
12.93 21.75 -8.3699999 0 0 0 0 0
49.32 11.72 -7.6799998 0 0 0 0 0
-2.3399999 48.48 -3.9100001 0 0 0 0 0
8.96 74.650002 -5.75 0 0 0 0 0
-1.88 7.77 4.2800002 0 0 0 0 0
30.42 15.23 0.039999999 0 0 0 0 0
5.5599999 23.469999 2.8199999 0 0 0 0 0
54.400002 -1.64 1.12 0 0 0 0 0
-8.5900002 14.37 -5.4200001 0 0 0 0 0
50.279999 81.419998 -8.3000002 0 0 0 0 0
47.740002 18.459999 -8.25 0 0 0 0 0
3.0699999 4.3299999 -5.2800002 0 0 0 0 0
64.150002 60.389999 6.5700002 0 0 0 0 0
14.03 26.780001 0.87 0 0 0 0 0
31.110001 13.52 5.1300001 0 0 0 0 0
54.43 0.60000002 3.3399999 0 0 0 0 0
-1.8200001 12.02 -3.26 0 0 0 0 0
67.919998 72.230003 -8.3800001 0 0 0 0 0
24.49 4.7800002 -5.9200001 0 0 0 0 0
67.150002 62.150002 -0.92000002 0 0 0 0 0
73.620003 32.209999 4.2800002 0 0 0 0 0
-6.8699999 35.77 4.8099999 0 0 0 0 0
69.220001 27.549999 6.3699999 0 0 0 0 0
3.0899999 52.279999 -8.04 0 0 0 0 0
4.6399999 14.55 -4.8699999 0 0 0 0 0
69.800003 13.46 -7.1999998 0 0 0 0 0
43.740002 6.5799999 2.23 0 0 0 0 0
3.1300001 30.93 -5.5700002 0 0 0 0 0
-5.3299999 2.96 6.4499998 0 0 0 0 0
72.529999 39.139999 -8.3199997 0 0 0 0 0
27.309999 68.379997 0 0 0 0 0 0
55.720001 13.28 -7.3600001 0 0 0 0 0
-2.6600001 36.790001 5.1700001 0 0 0 0 0
33.82 5.8699999 -4.4699998 0 0 0 0 0
70.309998 80.900002 -6.21 0 0 0 0 0
67.449997 37.110001 -2.9300001 0 0 0 0 0
62.900002 33.59 4.1100001 0 0 0 0 0
3.01 39.310001 -7.3499999 0 0 0 0 0
-0.69 71.07 -4.52 0 0 0 0 0
59.48 -1.7 -8.04 0 0 0 0 0
-1.7 35.759998 0.050000001 0 0 0 0 0
27.129999 70.790001 5.04 0 0 0 0 0
74.43 18.549999 0.14 0 0 0 0 0
53.400002 1.6799999 -3.8499999 0 0 0 0 0
25.68 85.519997 -8.3699999 0 0 0 0 0
3.1099999 51.07 -4.4899998 0 0 0 0 0
6.9299998 71.32 7.3800001 0 0 0 0 0
56.57 68.470001 0.0099999998 0 0 0 0 0
0.70999998 0.85000002 5.27 0 0 0 0 0
28.049999 15.2 7.0500002 0 0 0 0 0
-0.86000001 -0.80000001 2.23 0 0 0 0 0
75.839996 60.380001 3.6800001 0 0 0 0 0
31.209999 78.730003 -0.54000002 0 0 0 0 0
24.459999 79.040001 -1.45 0 0 0 0 0
6.2399998 40.299999 0.14 0 0 0 0 0
71.169998 37.360001 -0.93000001 0 0 0 0 0
33.509998 66.860001 4.5500002 0 0 0 0 0
76.32 50.34 4.29 0 0 0 0 0
14.56 15.9 8.0900002 0 0 0 0 0
62.380001 60.380001 5.2800002 0 0 0 0 0
10.5 35.560001 7.7600002 0 0 0 0 0
3.97 72.040001 2.77 0 0 0 0 0
27.24 11.32 7.0799999 0 0 0 0 0
67.93 46.41 4.2800002 0 0 0 0 0
24.540001 66.739998 -0.79000002 0 0 0 0 0
60.509998 65.309998 5.4200001 0 0 0 0 0
65.199997 86.779999 -6.3699999 0 0 0 0 0
-2.8900001 74.519997 -3.8 0 0 0 0 0
-5.5700002 7.79 5.3299999 0 0 0 0 0
8.5500002 25.4 -1.21 0 0 0 0 0
62.740002 48.400002 -5.4899998 0 0 0 0 0
60.150002 31.459999 -0.99000001 0 0 0 0 0
69.150002 26.32 -6.8200002 0 0 0 0 0
60.549999 37.779999 7.8299999 0 0 0 0 0
66.089996 76.459999 -2.1199999 0 0 0 0 0
54.43 68.790001 -3.6300001 0 0 0 0 0
19 22.469999 3.9100001 0 0 0 0 0
44.75 -2.3599999 -7.54 0 0 0 0 0
-8.8999996 -3.6099999 2.55 0 0 0 0 0
28.01 5.6900001 -1.91 0 0 0 0 0
5.52 7.5100002 -5.6599998 0 0 0 0 0
35.290001 11.9 -0.56 0 0 0 0 0
1.78 4.75 -3.8 0 0 0 0 0
66.349998 -4.6100001 5.9400001 0 0 0 0 0
9.9099998 47.5 0 0 0 0 0 0
60.360001 71.440002 -8.3900003 0 0 0 0 0
73.989998 6.0100002 -8.0200005 0 0 0 0 0
65.309998 70.650002 -3.3699999 0 0 0 0 0
37.900002 -1.66 7.4400001 0 0 0 0 0
74.940002 33.380001 -8.3999996 0 0 0 0 0
3.21 41.959999 7.77 0 0 0 0 0
13.3 73.139999 6.0300002 0 0 0 0 0
18.32 23.059999 3.5699999 0 0 0 0 0
38.740002 3.0899999 -6.6999998 0 0 0 0 0
71.360001 53.700001 -1.53 0 0 0 0 0
1.64 29.77 6.6599998 0 0 0 0 0
49.18 86.769997 -8.4700003 0 0 0 0 0
4.96 33.66 -4.8699999 0 0 0 0 0
1.55 18 6.0900002 0 0 0 0 0
17.870001 16.49 7.3400002 0 0 0 0 0
3.1300001 60.790001 -7.3200002 0 0 0 0 0
33.450001 73.120003 5.3099999 0 0 0 0 0
36.740002 86.5 -3.04 0 0 0 0 0
10.24 45.869999 7.0799999 0 0 0 0 0
66.879997 47.830002 -8.3999996 0 0 0 0 0
61.110001 21.969999 -4.79 0 0 0 0 0
19.83 18.18 1.91 0 0 0 0 0
6.54 58.91 0 0 0 0 0 0
54.720001 18.66 0 0 0 0 0 0
60.889999 3.3399999 -4.7600002 0 0 0 0 0
58.48 -1.8099999 -1.0700001 0 0 0 0 0
76.57 28.18 -6.1999998 0 0 0 0 0
75.660004 79.129997 -4.0700002 0 0 0 0 0
12.75 73.120003 1.36 0 0 0 0 0
70.910004 59.080002 2.3099999 0 0 0 0 0
48.34 -0.67000002 1.74 0 0 0 0 0
67.830002 40.700001 1.34 0 0 0 0 0
15.46 57.099998 -7.2600002 0 0 0 0 0
54.77 65.040001 -1.86 0 0 0 0 0
44.490002 73.099998 -6.3099999 0 0 0 0 0
17.139999 7.5900002 -4.9099998 0 0 0 0 0
20.48 12.67 -7.73 0 0 0 0 0
76.190002 5.4899998 7.8499999 0 0 0 0 0
3.1300001 29.15 -7.7199998 0 0 0 0 0
29.559999 74.639999 -7.3000002 0 0 0 0 0
8.7200003 19.549999 -1.47 0 0 0 0 0
-7.1799998 -0.47999999 4.0100002 0 0 0 0 0
7.0799999 24.370001 1.79 0 0 0 0 0
66.379997 74.949997 -3.3299999 0 0 0 0 0
73.360001 79.139999 -8.3699999 0 0 0 0 0
-2.74 7.1999998 -2.3 0 0 0 0 0
42.580002 -0.85000002 3.74 0 0 0 0 0
49.59 64.32 -8.3900003 0 0 0 0 0
63.73 39.150002 -7.3600001 0 0 0 0 0
11.95 33.040001 -4.8299999 0 0 0 0 0
14.87 62.82 -4.1300001 0 0 0 0 0
-3.71 33.950001 5.23 0 0 0 0 0
57.049999 21.25 7.5300002 0 0 0 0 0
13.04 12.05 0.02 0 0 0 0 0
56.77 13.04 -1.1799999 0 0 0 0 0
76.589996 35.330002 -1.1799999 0 0 0 0 0
-8.1400003 80.32 -8.4099998 0 0 0 0 0
3.1700001 50.48 0.079999998 0 0 0 0 0
29.870001 10.54 -0.61000001 0 0 0 0 0
23.49 86.830002 -5.3899999 0 0 0 0 0
3.1199999 60.919998 -5.7199998 0 0 0 0 0
69.080002 9.4399996 4.3400002 0 0 0 0 0
46.639999 12.3 6.1700001 0 0 0 0 0
60.799999 13.09 -8.0500002 0 0 0 0 0
50.310001 20.16 -8.2799997 0 0 0 0 0
0.89999998 47.93 -3.97 0 0 0 0 0
66.059998 71.290001 -1.0700001 0 0 0 0 0
-6.1799998 38.68 -3.8699999 0 0 0 0 0
72.589996 50.009998 -8.4099998 0 0 0 0 0
20.360001 69.260002 -4.1300001 0 0 0 0 0
57.279999 56.060001 7.7800002 0 0 0 0 0
-4.3800001 22.07 3.6400001 0 0 0 0 0
-5.54 7.96 -1.48 0 0 0 0 0
74.43 30.620001 -5.8099999 0 0 0 0 0
-11.17 7.3400002 3.04 0 0 0 0 0
19.690001 11.84 -7.6100001 0 0 0 0 0
60.52 -1.64 5.4299998 0 0 0 0 0
41 84.029999 -6.75 0 0 0 0 0
-2.4200001 25.5 -5.4699998 0 0 0 0 0
-0.2 40.860001 7.0700002 0 0 0 0 0
35.75 9.0799999 -2.46 0 0 0 0 0
15.36 68.260002 6.9000001 0 0 0 0 0
9.6199999 11.19 7.3600001 0 0 0 0 0
-2.4100001 9.0600004 -8.3500004 0 0 0 0 0
62.330002 35.709999 3.5999999 0 0 0 0 0
12.44 30.23 7.4400001 0 0 0 0 0
15.27 67.019997 -7.5500002 0 0 0 0 0
49.810001 11.73 -5.1500001 0 0 0 0 0
12.52 18.66 -2.73 0 0 0 0 0
46.630001 -0.33000001 6.5599999 0 0 0 0 0
55 83.550003 -8.3100004 0 0 0 0 0
5.8400002 22.1 -8.21 0 0 0 0 0
51.880001 71.199997 -3.2 0 0 0 0 0
53.619999 -2.0699999 -5.1799998 0 0 0 0 0
34.130001 10.83 -7.9099998 0 0 0 0 0
58.610001 78.709999 -0.63 0 0 0 0 0
22.4 65.25 -8.3699999 0 0 0 0 0
65.730003 30.68 3.3800001 0 0 0 0 0
75.900002 81.910004 -8.3500004 0 0 0 0 0
67.739998 74.32 -3.8199999 0 0 0 0 0
-11.17 7.8499999 6.71 0 0 0 0 0
5.8800001 67.010002 -4.2800002 0 0 0 0 0
8.0299997 16.950001 7.8099999 0 0 0 0 0
47.66 -0.23999999 6.3499999 0 0 0 0 0
61.860001 64.550003 -4.2600002 0 0 0 0 0
21.26 62.290001 0.0099999998 0 0 0 0 0
73.839996 57.610001 -6.8299999 0 0 0 0 0
76.389999 52.240002 4.54 0 0 0 0 0
66.160004 4.8800001 -4.54 0 0 0 0 0
-3.6800001 39.610001 0.0099999998 0 0 0 0 0
65.699997 24.299999 -0.51999998 0 0 0 0 0
32.669998 10.01 4.1999998 0 0 0 0 0
12.34 57.880001 -7.6700001 0 0 0 0 0
3.1400001 63.470001 -5.8499999 0 0 0 0 0
52.75 22.92 4.0900002 0 0 0 0 0
20.42 67.809998 -0.77999997 0 0 0 0 0
24.389999 63.450001 -1.4 0 0 0 0 0
10.79 56.93 -0.58999997 0 0 0 0 0
56.630001 63.220001 7.0799999 0 0 0 0 0
75.080002 40.82 3.2 0 0 0 0 0
5.02 31.940001 -4.0300002 0 0 0 0 0
12.94 67.199997 -5.9400001 0 0 0 0 0
7.5 76.82 -1.4299999 0 0 0 0 0
42.34 69.419998 -0.61000001 0 0 0 0 0
7.48 30.950001 -8.3800001 0 0 0 0 0
7.9099998 67.800003 0.17 0 0 0 0 0
49.049999 66.5 6.0599999 0 0 0 0 0
0.07 43.09 7.3099999 0 0 0 0 0
61.509998 13.57 -8.1400003 0 0 0 0 0
-7.3400002 73.209999 -8.4200001 0 0 0 0 0
65.629997 64.209999 -8.3500004 0 0 0 0 0
62.02 22.139999 -6.9699998 0 0 0 0 0
41.57 5.7800002 -1.0599999 0 0 0 0 0
2.22 81.550003 -8.3500004 0 0 0 0 0
73.269997 28.809999 1.87 0 0 0 0 0
71.449997 25.17 5.4099998 0 0 0 0 0
42.68 0.49000001 3.3399999 0 0 0 0 0
12.1 49.560001 4.0900002 0 0 0 0 0
-5.5300002 14.95 -1.55 0 0 0 0 0
1.62 70.050003 -3.51 0 0 0 0 0
62.73 74.620003 -8.8500004 0 0 0 0 0
44.889999 65.5 -5.5799999 0 0 0 0 0
11.09 73.120003 -8.3500004 0 0 0 0 0
22.309999 13.14 -0.56 0 0 0 0 0
20.33 16.690001 -4.6399999 0 0 0 0 0
68.32 4.6300001 4.3200002 0 0 0 0 0
16.200001 11.62 -1.09 0 0 0 0 0
45.91 -1.63 6.9400001 0 0 0 0 0
72.980003 50.810001 -1.51 0 0 0 0 0
75.239998 65.669998 -8.1099997 0 0 0 0 0
74.639999 0.28 0.02 0 0 0 0 0
34.68 -2.5 1.52 0 0 0 0 0
58.720001 0.94 6.2199998 0 0 0 0 0
3.4000001 53.68 7.8499999 0 0 0 0 0
13.12 24.24 -8.3699999 0 0 0 0 0
64.370003 22.950001 -5.2199998 0 0 0 0 0
-0.029999999 9.5100002 -5.6300001 0 0 0 0 0
3.1300001 27.59 5.6300001 0 0 0 0 0
0.64999998 6.0799999 -7.4699998 0 0 0 0 0
12.59 17.34 -7.4499998 0 0 0 0 0
72.199997 30.620001 -2.8199999 0 0 0 0 0
49.93 73.089996 -7.1100001 0 0 0 0 0
67.209999 60.389999 6.52 0 0 0 0 0
-4.3600001 70.139999 -5.1900001 0 0 0 0 0
62.900002 26.34 3.8900001 0 0 0 0 0
40.259998 13.53 -0.0099999998 0 0 0 0 0
69.480003 30.629999 -2.99 0 0 0 0 0
20.6 9.1400003 6.6700001 0 0 0 0 0
70.290001 65.720001 6.1799998 0 0 0 0 0
56.919998 23.309999 -3.3599999 0 0 0 0 0
3.27 28.450001 6.23 0 0 0 0 0
19.940001 70 6.25 0 0 0 0 0
55.369999 56.32 -7.8499999 0 0 0 0 0
20.360001 66.800003 -5.4200001 0 0 0 0 0
59.790001 19.059999 -1.13 0 0 0 0 0
44.900002 64.470001 -4 0 0 0 0 0
-0.22 44.740002 -4.75 0 0 0 0 0
1.61 55.400002 -1.62 0 0 0 0 0
22.379999 3.5 -4.6199999 0 0 0 0 0
10.09 83.489998 -6.73 0 0 0 0 0
71.129997 33.080002 0.079999998 0 0 0 0 0
-4.9099998 19.35 5.1399999 0 0 0 0 0
72.25 4.2399998 7.75 0 0 0 0 0
58.799999 9.0699997 1.65 0 0 0 0 0
14.7 24.43 -5.5100002 0 0 0 0 0
75.790001 84.959999 -1.2 0 0 0 0 0
58.18 61.419998 7.4200001 0 0 0 0 0
21.389999 19.440001 7.3200002 0 0 0 0 0
57.580002 20.540001 -0.63 0 0 0 0 0
62.299999 64.470001 -4.9000001 0 0 0 0 0
60.709999 43.619999 3.8099999 0 0 0 0 0
65.330002 1.5 0.15000001 0 0 0 0 0
11.55 14.36 5.1300001 0 0 0 0 0
60.119999 63.919998 0 0 0 0 0 0
-4.5300002 23.540001 -5.4299998 0 0 0 0 0
-8.7799997 5.8099999 -8.0299997 0 0 0 0 0
38.48 10.09 1.13 0 0 0 0 0
24.549999 15.32 5.1599998 0 0 0 0 0
18.85 14.61 -0.63999999 0 0 0 0 0
70.669998 26.48 -8.2700005 0 0 0 0 0
10.7 79.860001 -8.3999996 0 0 0 0 0
9.6400003 17.959999 -6.0500002 0 0 0 0 0
8.6899996 65.260002 -5.9400001 0 0 0 0 0
7.5900002 48.689999 -0.02 0 0 0 0 0
-4.4699998 30.860001 -3.8 0 0 0 0 0
73.800003 62.869999 5.9099998 0 0 0 0 0
76.639999 34.650002 5.6900001 0 0 0 0 0
55.450001 11.8 2.8 0 0 0 0 0
56.73 69.690002 0.02 0 0 0 0 0
-11.18 76.739998 -6.25 0 0 0 0 0
70.199997 61.57 -8.3800001 0 0 0 0 0
63.779999 77.93 -7.8600001 0 0 0 0 0
67.709999 65.720001 3.47 0 0 0 0 0
59.279999 66.199997 7.8499999 0 0 0 0 0
10.06 81.370003 -8.4399996 0 0 0 0 0
49.099998 -1.64 2.6600001 0 0 0 0 0
22.280001 76.730003 -0.61000001 0 0 0 0 0
25.82 6.4299998 -8.3699999 0 0 0 0 0
39.790001 72.019997 7.6700001 0 0 0 0 0
1.66 44.490002 0.83999997 0 0 0 0 0
62.799999 2.8199999 -7.1999998 0 0 0 0 0
38.380001 73.110001 -1.54 0 0 0 0 0
53.93 10.49 -4.9699998 0 0 0 0 0
-4.4099998 -2.79 -0.0099999998 0 0 0 0 0
-8.6000004 15.66 -6.1599998 0 0 0 0 0
76.559998 74.879997 -3.3099999 0 0 0 0 0
64.400002 9.6199999 0.70999998 0 0 0 0 0
8.9099998 14.28 0.029999999 0 0 0 0 0
-0.73000002 67.519997 -8.3999996 0 0 0 0 0
46.990002 16.959999 -0.88999999 0 0 0 0 0
44.580002 68.620003 -3.8099999 0 0 0 0 0
5.8800001 72.830002 -2.46 0 0 0 0 0
6.7600002 8.3400002 -6.3000002 0 0 0 0 0
41.02 12.44 8.0799999 0 0 0 0 0
22.780001 18.549999 -1.3099999 0 0 0 0 0
60.290001 24.049999 0.02 0 0 0 0 0
12.37 31.91 5.8400002 0 0 0 0 0
0.91000003 43.639999 0.18000001 0 0 0 0 0
35.060001 15.14 -2.0699999 0 0 0 0 0
27.940001 66.699997 0 0 0 0 0 0
8.1099997 11.62 6.6999998 0 0 0 0 0
66.599998 35.09 0 0 0 0 0 0
52.669998 11.72 -5.5 0 0 0 0 0
5.5300002 7.5999999 -7.6399999 0 0 0 0 0
6.8499999 -0.63999999 7.4499998 0 0 0 0 0
76.57 32.029999 -2.6099999 0 0 0 0 0
51.790001 3.0899999 -4.3299999 0 0 0 0 0
62.349998 64.949997 5.8099999 0 0 0 0 0
11.62 18.18 0.80000001 0 0 0 0 0
-4.52 30.040001 -6.6500001 0 0 0 0 0
6.4200001 82.559998 -0.80000001 0 0 0 0 0
14.35 72.080002 0.0099999998 0 0 0 0 0
58.259998 26.450001 -3.8900001 0 0 0 0 0
16.32 17.49 7.3400002 0 0 0 0 0
75.959999 63.849998 2.27 0 0 0 0 0
11.3 46.900002 4.3099999 0 0 0 0 0
46.200001 78.089996 -8.4099998 0 0 0 0 0
-4.3200002 8.9700003 -6.1399999 0 0 0 0 0
61.360001 84.93 -8.2299995 0 0 0 0 0
38.549999 69.589996 -8.3900003 0 0 0 0 0
70.300003 85.43 -2.6099999 0 0 0 0 0
65.830002 65.68 -7.3800001 0 0 0 0 0
62.610001 6.3400002 -5.5999999 0 0 0 0 0
